12.6915,38.8985,27.491
16.9031,9.00954,46.3988
30.7884,45.1548,41.0878
29.4078,34.8363,47.6774
38.274,38.7205,0.949354
41.0998,16.7494,29.1825
5.90484,19.8184,0.680748
17.7332,36.6669,29.6341
26.7725,4.24041,6.61895
49.5895,26.9296,32.5426
34.7708,11.6549,6.68359
48.6816,19.1764,15.1777
3.87915,11.5357,47.4603
18.7353,33.6784,8.20193
45.5103,23.1087,30.6906
49.2371,14.3432,11.4384
12.8696,35.782,16.4688
21.4026,40.1744,38.3652
28.2572,26.274,20.2619
41.0402,40.6439,43.7799
42.6545,24.7913,45.2189
37.2227,19.5081,43.3804
0.721019,31.603,41.2427
42.4427,22.3068,10.5301
30.7219,8.40157,28.7946
29.0793,46.7539,37.4034
36.6146,19.9949,22.7595
21.3381,48.3584,32.8528
17.7545,15.2782,24.9267
22.406,33.254,2.84307
43.4603,32.3784,27.6684
49.3797,5.57277,16.4118
26.5707,16.9875,31.1756
9.1206,36.9622,28.411
49.4101,1.55328,17.9512
25.3594,16.0163,25.8569
19.7868,24.1315,35.1109
20.5072,1.52902,13.9892
42.5873,13.2643,0.118124
2.20627,48.4877,38.71
37.9305,1.59592,35.9585
26.855,1.93201,32.5874
46.2327,36.9107,23.8187
47.5625,4.71338,31.2596
31.5837,30.8001,26.9117
18.8639,17.447,26.4074
43.3542,16.4989,14.8741
34.8137,0.830966,42.6554
43.2117,24.1287,27.495
42.128,35.5915,3.89095
1.07968,10.7228,35.7407
21.3275,33.3958,46.4529
25.5388,36.9439,26.0755
6.69682,29.8527,34.9063
8.30106,35.3729,38.0653
3.13461,1.27905,48.8875
31.57,17.9448,43.8792
41.9012,6.88597,38.6631
13.7558,13.8776,26.465
24.6548,32.0494,44.4903
18.8743,14.1095,17.4597
37.4713,23.1779,37.154
37.1769,26.55,31.3019
24.558,14.1524,28.9791
36.5679,10.5915,25.6826
3.84173,45.8672,37.6607
6.34561,32.463,39.202
10.667,10.1935,21.2834
8.61239,2.38127,46.2722
34.6001,42.3786,41.1096
46.5434,23.6387,12.8878
32.8747,16.102,34.8927
2.4662,2.83476,37.2782
5.58461,27.9443,6.0204
25.1961,45.1654,9.60249
26.7277,16.4698,44.4466
36.6085,49.5271,23.7104
18.6773,46.5306,18.5468
28.9531,20.8367,49.2501
33.4823,23.936,35.9205
45.6031,13.6831,36.769
12.7406,7.97648,6.22021
38.7486,25.2386,36.6129
23.7234,39.4649,24.0417
16.54,16.6665,37.5032
0.550408,32.9722,13.7192
30.1631,14.0511,20.5618
36.6165,43.434,7.16387
30.6792,45.4159,30.2668
34.8669,35.4769,39.2545
43.9976,11.8277,16.2507
16.823,20.2812,45.4208
21.8431,45.557,19.9611
5.08412,42.5769,21.4567
13.6502,29.5408,44.7591
41.5155,24.8636,9.84504
40.5182,22.7632,40.7657
31.3774,49.1297,24.9696
11.6551,36.2855,27.7626
36.4736,16.3102,3.04666
25.5491,29.0951,3.79243
4.04933,35.3972,16.2855
13.5141,20.1839,3.02133
13.5352,9.85923,46.34
4.25879,42.988,49.412
16.5344,38.0803,7.47655
49.376,5.01396,38.9621
24.4638,32.0798,9.78145
26.8261,4.67179,49.7083
2.76591,41.129,48.9313
30.1094,18.094,21.0526
7.59934,41.7852,38.4031
20.8518,48.1153,30.3508
17.9149,35.2436,47.3988
44.6081,2.04957,48.7439
31.4371,9.83385,3.57688
18.8122,44.8981,0.498838
21.1422,31.6626,4.27459
36.9244,17.609,7.1186
44.8774,26.0498,43.471
45.3268,43.6249,13.2471
0.0979356,26.3121,48.6083
32.1404,38.3365,3.72384
10.4035,25.5474,36.4002
0.918962,22.5338,7.28592
9.08778,43.0787,12.5789
3.05791,48.5376,25.163
47.0858,9.35401,31.6935
9.83581,2.50311,33.9194
42.5876,17.7615,28.5119
43.9632,3.06048,47.5068
18.255,0.937425,34.5344
1.8209,34.5045,26.0124
47.6599,24.6334,10.8371
18.1387,40.585,43.4137
35.2703,38.7499,19.7002
21.2003,43.4839,42.9681
24.4146,18.0484,33.6994
41.3599,36.9431,27.1971
46.7383,37.3352,20.5854
36.1932,5.44164,38.9093
19.8892,7.12398,25.1485
36.9751,21.272,27.8473
6.86394,49.4298,1.49356
34.2562,12.7474,37.9811
45.9301,34.6911,36.0452
38.9141,34.5097,5.98883
32.4212,29.8909,46.0286
0.108256,37.6993,18.3753
1.8522,48.4147,2.68221
16.0484,8.22156,4.02021
19.0951,5.28267,4.89076
17.9246,3.52137,28.8759
22.4493,22.224,44.5419
7.67397,15.147,0.923949
11.6594,32.5247,4.73813
44.3484,35.2481,2.0476
46.9854,17.4326,2.02537
9.5372,15.4831,3.59925
22.6897,6.3468,21.9865
35.8706,31.9639,37.9497
11.4601,11.8805,33.063
40.9599,12.1371,38.9563
11.3368,36.2945,25.0356
41.3717,29.9172,42.9229
3.05872,41.5279,15.3658
31.5658,32.2468,35.2963
24.2097,7.80879,9.51573
32.2886,48.2985,45.8835
46.9074,37.2567,7.81594
7.94382,16.6147,38.408
41.1466,2.2935,26.9479
43.4004,3.11972,23.6572
10.1369,21.9477,40.8742
9.07931,48.5023,21.6796
42.94,48.6286,46.2199
11.737,19.5892,20.5553
7.4701,4.65992,34.5863
30.0128,45.6761,1.87409
22.3622,48.7821,10.2018
29.1653,4.09342,49.2654
20.8139,19.4612,5.92797
36.5227,39.9392,15.458
11.3151,6.13706,7.20506
11.2374,48.0841,32.7367
31.4618,38.3693,0.742663
18.5618,49.8326,26.3933
48.0691,38.3181,20.4542
24.2059,22.43,15.2187
31.9304,26.7413,1.54782
20.2539,34.2602,24.1919
20.6643,49.7367,3.77505
15.6544,12.935,36.4399
2.1847,37.2872,43.6829
0.459547,9.77441,33.1757
36.7898,41.2001,24.7836
18.415,47.794,25.0262
43.9044,4.78764,0.30536
3.13962,43.5806,29.7344
26.5907,6.34349,20.1229
45.1258,34.9547,31.3184
21.2558,10.3616,11.3772
14.5625,0.685403,33.9261
38.6067,10.7637,0.207575
30.971,44.5668,28.581
48.4485,7.68917,37.6722
9.4842,41.3834,31.7356
42.7741,34.3567,35.5964
0.426744,5.62241,5.22717
5.5418,16.5881,7.13338
18.6503,32.6048,25.5453
3.94883,28.5588,25.3023
29.3938,29.5718,6.49188
26.0571,19.7256,49.0979
3.8285,21.716,47.6884
27.7527,2.67991,33.5018
4.8051,47.9394,27.2977
29.592,37.2031,12.3886
22.2481,39.2902,3.29306
10.4204,43.0968,31.4718
9.26816,24.6089,45.1848
13.6948,17.8701,45.971
18.0225,19.4882,13.0718
23.4463,9.4644,17.14
9.97982,19.7376,44.0021
10.3139,38.3029,21.3063
17.3262,31.2178,4.78553
30.1581,26.4825,17.5075
27.6295,39.6236,40.4645
23.6504,12.1993,12.916
35.8891,2.71104,20.0172
47.5473,48.3869,28.4693
27.3622,21.7364,48.3254
49.7897,0.814704,46.8998
38.8999,42.7917,44.0799
35.2812,10.7202,44.9236
12.2906,7.33332,10.0707
45.0416,40.1987,47.3008
4.39689,9.30558,41.3247
6.03336,42.2126,4.22432
29.6879,24.1292,36.7965
4.04667,7.2189,15.8283
33.7777,33.7265,1.80433
15.3462,12.1733,3.52004
46.9699,40.1585,49.2058
13.7676,23.616,28.131
12.9422,23.2703,12.4919
47.5172,11.4943,39.3966
33.1397,39.5907,5.54661
43.3106,25.1301,13.3703
9.56275,41.3152,49.1984
37.8003,21.8678,27.7783
12.967,23.201,13.49
32.818,33.0359,38.885
32.4546,20.5675,11.7129
40.0856,20.1752,26.7291
22.7976,2.52959,49.5898
8.87693,45.6763,41.5254
10.2082,32.9392,0.0860626
21.4374,48.3769,41.6675
24.8235,17.2759,35.4889
10.5863,9.89889,7.33199
43.2406,14.5364,26.9351
3.3489,29.3709,7.46841
31.2964,13.6795,48.6735
3.03095,0.0800169,16.436
7.61667,34.3955,35.3396
17.2698,29.9255,1.62687
12.8742,22.6291,45.6863
49.0413,8.64292,15.687
27.6587,4.40208,39.7638
42.4655,48.3162,23.5762
8.10062,7.14633,43.5335
49.8958,27.2249,43.7655
46.1548,26.3147,14.9566
10.561,25.7478,8.89107
37.9659,40.7104,10.668
34.795,38.701,28.1808
3.20539,0.120729,37.0318
3.29058,8.6712,2.3371
30.306,5.50154,0.293385
27.1076,41.5547,25.9665
44.5617,43.1357,43.5894
23.8281,14.4152,29.515
37.1699,14.9949,4.39041
48.7853,23.7396,29.063
27.881,21.3194,44.3194
20.4183,9.55682,46.5858
36.6987,37.9256,25.9849
22.354,28.3438,48.3376
14.4898,18.3959,20.956
49.2434,48.0893,13.8881
11.7599,29.0909,49.4609
35.4145,5.9282,24.318
12.0292,46.1257,1.74381
35.1942,28.4161,26.186
14.1233,37.5632,9.44662
32.0106,27.7791,4.42965
24.7059,8.66296,19.0695
12.5952,3.01865,47.1468
47.6936,18.5657,44.8135
21.2667,2.76824,34.1147
5.30849,7.47621,3.16729
27.8787,44.919,37.1887
20.8095,33.6018,44.6776
17.8602,12.571,21.8542
12.7437,24.7219,9.91239
2.96589,14.7618,1.45076
30.0642,20.0238,5.30402
0.322804,7.37624,32.6727
3.34784,39.2868,19.0274
48.3702,32.6549,3.90321
27.4502,44.7015,17.7555
40.2093,39.1194,11.9507
24.5641,34.3772,32.836
21.1875,15.3768,12.8783
8.70629,10.9175,15.0067
25.7405,0.102009,26.0975
9.18259,16.0164,33.9337
34.2904,3.83304,1.14238
12.2164,2.87374,5.84201
14.3078,35.1708,4.23225
4.81126,19.4267,4.25104
33.5897,14.6999,24.1096
30.9818,13.6188,39.7209
16.0264,21.0878,18.0481
25.4835,13.1808,25.9197
19.0406,24.9485,46.3944
29.5622,24.2222,16.7703
7.74176,22.4064,28.0443
6.69866,49.351,49.173
45.1698,21.3528,23.7728
8.94712,12.6444,38.37
26.6565,8.73539,8.64056
44.0828,37.7214,20.56
14.0095,20.1352,21.5043
2.98512,18.8819,7.18944
11.046,25.903,35.5952
22.7858,24.9187,2.598
14.3595,40.7457,25.9172
18.3918,10.9771,2.80422
0.0762995,14.7509,42.2708
13.2599,3.44448,7.24679
35.3758,48.6973,15.5606
9.95753,34.8725,41.4473
23.5751,40.1474,27.0116
34.0761,31.8132,31.5778
17.7704,26.661,8.30949
49.8152,15.4092,18.9707
11.8152,20.4655,45.5632
13.5855,25.7617,37.763
19.7456,33.6036,22.3942
5.18019,45.1066,5.42313
10.4225,35.3354,28.8095
33.911,1.38852,45.2445
43.9344,21.1022,29.5409
20.0689,7.98619,49.878
17.7393,8.52482,38.213
11.635,16.2059,36.9407
48.4698,21.5111,46.9167
48.1945,28.6043,48.2461
21.789,29.7675,38.2748
37.9681,36.2221,28.4806
0.427821,25.1926,36.232
37.4294,26.0865,41.465
46.1184,34.7196,20.0276
24.5827,36.0301,27.0919
2.7255,23.0328,16.7335
1.39543,31.5055,37.8205
43.154,7.39555,10.8849
44.8059,46.8551,37.8158
20.4927,7.42539,19.4064
12.8374,38.2478,38.3827
24.4626,30.8606,3.48291
3.56302,33.7199,44.1061
36.5019,33.3578,35.3662
49.2663,18.501,6.07894
1.22256,12.2245,0.713053
24.6295,1.33445,34.6625
30.1821,6.7953,13.8215
41.3867,42.0276,14.6693
17.4442,47.7333,2.38461
7.91993,24.5316,36.2805
32.8754,42.4387,25.3922
44.6307,30.1677,44.1492
30.4146,21.0538,39.2729
39.8961,2.28856,40.4795
36.4775,41.7068,12.7996
0.240888,21.9551,5.00204
12.9511,17.9532,18.1588
22.9383,46.8453,27.1081
13.8619,39.4572,13.248
40.4079,27.118,13.8193
1.76354,6.88265,20.6974
29.6736,25.0273,44.8926
23.2427,38.9292,31.1669
36.882,24.13,42.334
15.3283,13.6333,6.63153
27.8992,38.9777,23.7252
17.249,26.6882,2.35604
13.9938,37.805,37.5811
44.4821,37.4266,37.2845
11.7821,8.50707,49.8351
1.84502,34.9912,3.11521
5.85036,3.61271,14.2426
8.90558,37.7622,17.7014
36.3258,42.1955,4.82465
14.1707,32.052,21.1601
24.4895,26.714,16.1885
12.7043,12.9812,26.373
6.68949,14.7638,0.123139
28.4593,24.1342,20.6135
37.9455,12.5576,5.23582
20.0376,20.5439,30.9982
10.1454,24.4268,2.62878
13.6345,1.11244,12.383
6.39846,25.8035,27.037
21.5871,4.85819,30.82
0.009556,11.6601,11.9457
49.3516,16.2661,4.79718
21.7724,21.2432,18.617
26.8146,15.1665,20.9387
47.0338,14.3427,31.0716
32.9813,17.009,31.2964
14.408,3.33679,10.5115
2.50496,13.6328,2.6573
3.59862,29.3833,28.9499
46.8239,37.3311,28.7435
2.10999,26.55,33.8444
32.5919,18.0094,34.3126
21.2796,10.9107,47.1429
14.6871,36.412,45.8192
44.6291,33.5504,35.1758
45.2401,29.2917,21.6645
16.2059,15.4073,20.4007
42.8368,0.605493,35.3118
48.4854,23.9447,37.2777
26.0569,11.3569,33.4244
44.374,13.2952,43.3852
10.4809,40.9792,45.3012
41.9144,30.4295,1.47745
49.9211,42.3635,6.00637
16.966,46.8439,46.7842
7.2038,40.998,10.8015
15.5998,18.0203,11.5199
1.13913,26.1808,28.9523
31.2643,11.7374,18.5539
47.9102,46.3938,32.7354
26.5687,42.3632,44.7268
12.8182,17.467,34.259
30.3453,11.2018,49.7926
22.3516,49.2163,31.7227
14.2439,6.77401,11.5873
30.9187,34.8567,33.3119
1.56906,27.7458,0.739274
20.6411,26.8855,5.02033
17.2061,33.7173,5.41599
10.3039,34.2346,22.7759
13.2516,9.63755,10.7051
44.5037,47.9913,41.367
5.68402,8.52492,44.5118
17.7102,33.1018,5.35059
43.6762,7.18598,19.5676
21.5965,10.7009,26.8903
17.4761,26.8288,46.1201
27.3262,33.9378,37.6556
25.5561,30.2198,0.191806
5.75206,41.5781,24.9763
39.3884,44.0661,1.36785
14.1239,3.72518,28.7686
3.6349,40.4145,37.2121
47.7405,25.215,6.98288
23.4313,8.46662,13.5032
29.2572,22.4106,3.51189
0.762656,7.68658,3.88618
12.8597,28.008,42.0663
40.4947,40.6766,26.595
6.10494,48.5114,40.7594
45.7985,20.8257,17.1743
4.05018,7.93508,32.6001
32.2068,16.8037,39.3285
32.114,45.3639,11.564
37.9044,41.6422,47.5502
22.8275,33.3705,34.9467
43.7004,16.0271,40.1661
33.1672,28.191,38.9317
26.7595,35.3004,1.63722
45.5911,20.4667,39.8592
31.6285,25.8376,6.84106
7.14608,48.4281,25.9431
20.7219,20.1198,21.2603
19.8866,1.93083,37.9581
41.5854,6.64478,1.44147
37.1969,14.7458,1.98329
35.2765,37.0741,13.9425
32.6267,11.0484,30.563
28.5989,6.77994,8.7932
30.4443,19.4283,13.3064
22.4037,24.2374,42.0978
2.27468,8.8404,17.7292
16.0329,32.7339,29.6881
12.7695,6.45493,15.7072
37.5234,26.0095,5.99464
35.7762,5.73403,27.5838
26.7955,7.91865,18.6077
6.25621,23.5985,15.0484
47.344,31.9987,30.9789
37.9748,25.004,1.56424
1.25426,0.450404,14.3619
37.8901,19.9475,18.9532
19.6979,45.5834,23.8526
49.8541,7.87777,10.6037
11.5523,31.9727,38.2875
10.3291,45.3993,25.3476
40.4297,16.9098,17.2436
16.4157,0.908793,33.9199
47.49,48.7027,28.0982
43.2689,12.4098,45.0459
18.2233,9.17902,33.4853
23.261,8.54131,14.0198
31.3608,18.7306,40.7541
25.0496,9.42692,35.5987
44.2958,13.0495,34.3231
14.7618,5.45708,16.609
5.72283,14.3599,22.4575
24.3022,10.3589,47.3254
15.2654,19.0518,29.5509
21.7579,18.8946,4.07488
8.96198,14.7429,22.3899
43.3765,40.3366,27.3452
47.2198,3.49744,14.1148
39.8935,12.2302,29.4771
44.5261,35.3665,3.11884
49.773,23.9414,28.9986
23.3718,35.4943,40.4243
44.3918,34.471,26.6215
39.6345,19.9279,32.8386
43.0291,3.04047,32.0844
40.0772,10.8912,7.93124
35.4326,33.0092,3.67612
8.63541,36.4033,49.8938
12.5772,32.8783,49.6359
49.4847,4.15155,27.0448
35.2666,23.3792,31.1895
35.7322,48.6327,11.8804
29.9246,30.5621,47.4697
28.3161,4.52629,44.3376
4.71827,48.5118,35.0081
7.31238,27.4731,41.7073
47.9766,12.8301,21.2749
14.8392,24.9505,14.4073
3.94869,11.1626,49.2425
18.292,0.761815,2.25321
35.0126,18.5549,36.9883
43.8811,24.2892,46.7972
27.1814,48.3079,10.0951
18.784,7.98949,31.9333
29.3981,26.0644,22.4605
49.0152,42.3453,39.8981
8.79838,22.2604,20.989
4.37603,26.1838,29.5554
49.0706,46.5598,49.134
30.3411,1.11763,33.9531
49.4362,38.0242,20.715
35.9466,49.6044,43.821
37.8217,12.119,6.5978
21.0617,31.8,13.7492
47.1644,40.6785,39.2656
32.002,20.0805,5.81503
32.5345,9.74391,31.3931
17.2833,37.2038,28.1062
6.31693,37.2125,6.83392
12.4394,33.54,44.997
11.5183,44.7531,21.2469
39.7385,23.0377,18.0673
35.7803,15.8369,5.16465
3.83711,3.8706,9.51753
48.2198,18.0715,6.80413
37.0378,24.2783,11.582
6.64784,1.82464,20.7226
5.00457,11.6068,20.2834
41.1334,30.8272,17.2394
45.5136,24.8534,17.0525
45.033,2.23793,0.676958
27.7598,30.2642,43.5512
30.1271,38.4416,11.2159
2.81478,9.99838,25.8924
31.1741,32.3658,29.395
30.2334,21.9279,18.8785
22.1385,17.8782,9.63559
27.0813,27.6601,5.76337
46.0113,35.9206,36.4668
27.1799,20.9163,36.6573
35.0812,48.035,25.7127
33.5139,41.4875,44.4533
44.6967,26.8483,11.4162
4.83305,3.46053,47.0624
39.4097,10.229,7.71549
46.22,42.1959,8.04226
47.3611,19.8327,15.168
28.8833,43.4544,22.9295
15.9831,18.172,17.7942
22.8874,48.9132,49.9977
29.3492,36.4195,18.1009
26.413,43.1903,24.5272
26.9181,41.046,4.19107
46.784,4.59945,34.2107
12.6359,20.6545,33.9668
18.3467,42.5311,38.9246
34.4564,48.5672,19.9067
41.6233,46.5734,39.7793
33.9266,41.0964,27.5813
10.3687,26.1277,1.63055
12.2873,10.9943,5.78515
2.90464,36.7391,1.73438
5.49673,19.7377,19.3644
49.6619,48.2317,25.7424
28.1282,40.4887,48.9686
36.3091,8.39366,36.1387
37.0186,9.02299,0.811337
16.0801,23.7013,9.43947
4.84973,15.8232,17.8989
34.8291,39.4539,36.8828
28.8258,26.8017,6.62522
17.3267,16.099,2.92569
28.2066,10.0894,6.41244
45.3596,26.7989,10.7467
11.87,32.6275,48.7213
47.3804,3.73788,10.649
3.10151,9.26207,41.8858
0.0806468,7.24563,36.7359
28.3222,21.2276,2.03737
21.4606,29.2196,4.73941
16.5438,11.886,37.465
8.503,21.6496,48.7755
29.479,36.314,36.7226
39.099,26.1504,49.5584
22.1822,9.16657,14.2806
24.1721,9.63995,43.1768
6.99728,25.0559,9.49254
30.849,11.3603,39.2903
12.832,22.9442,45.6918
4.37292,26.2964,36.3722
11.4042,3.29481,30.8735
37.069,6.20824,5.30943
17.132,14.4367,22.7197
27.0742,7.63735,20.4069
49.7218,46.9428,3.14451
41.4924,15.8135,29.3715
4.33265,48.9674,24.6785
33.1612,4.42644,6.92988
25.088,8.148,37.1575
13.94,43.7984,5.38236
9.45603,15.5862,32.9534
21.5506,16.9916,33.5151
22.315,46.5018,17.4292
19.004,43.7962,32.2751
45.7509,5.55678,11.6855
49.0771,45.5981,48.5523
15.6444,17.7667,36.5206
24.8728,8.75387,21.8862
37.3966,49.2667,36.2495
2.37324,33.6154,27.0895
25.3445,28.4646,35.6467
17.8735,32.6112,35.5957
35.7937,25.3949,2.12956
40.1166,2.10235,40.8683
42.4793,41.5427,13.1917
25.2961,16.9943,27.4421
33.5775,7.13323,16.8229
42.5445,21.3606,8.92327
46.4953,47.9257,30.9691
49.6043,22.5047,15.9567
9.43791,20.263,12.7492
27.9162,37.596,42.4451
1.57184,21.7205,16.3347
7.117,21.5686,32.7288
14.1851,41.6983,41.6193
42.7795,33.0309,21.1684
20.0912,20.5891,30.4096
23.8902,21.3128,14.9598
29.0957,26.0835,7.60476
31.1844,45.3689,41.803
5.89136,18.3345,45.3053
10.9173,5.13156,32.4594
49.2569,42.1213,23.363
42.8675,32.9551,43.441
24.3117,35.4222,14.3057
32.9873,37.6548,18.2051
32.1021,25.7556,22.781
35.4606,37.5341,21.031
14.9313,12.7445,22.1639
44.1508,39.5929,23.3295
11.6413,34.1308,1.8762
9.16677,22.3224,48.7951
16.5845,0.464831,44.8398
14.7146,26.3912,25.7917
30.4517,36.233,37.1361
48.7148,24.4255,19.6863
0.198828,7.14844,33.323
5.83423,6.08899,48.1717
44.5006,20.3585,18.6971
43.9025,36,29.8848
44.0154,15.6793,40.5956
44.1251,11.8684,0.957437
40.486,31.9002,19.8071
38.2267,7.74243,4.90302
33.7399,44.5799,23.1534
3.7734,28.065,43.0301
6.96516,15.9792,40.3553
42.044,11.2698,44.4964
3.95946,37.4335,24.5166
22.2924,6.25096,3.98798
3.79882,42.8519,42.9547
0.403059,17.0616,46.7663
38.2531,47.0069,22.9388
14.8275,28.9097,5.22007
38.9917,49.2802,15.154
14.7154,5.0551,7.52734
24.9464,19.0028,15.0821
33.6091,28.159,49.2201
34.938,24.1212,45.2808
28.792,36.6816,27.6808
46.3353,28.1278,31.6348
13.6779,4.75817,49.8188
49.7754,3.52414,1.24065
36.223,6.73142,31.2914
22.6988,21.757,27.1575
14.8349,14.2796,30.6357
2.01303,41.4147,27.9998
40.6342,8.68582,11.1772
9.5333,36.1733,41.2714
41.7526,22.064,4.25992
35.9463,46.6832,28.222
17.3344,39.5246,44.0164
8.09419,14.7066,8.5825
44.5708,9.54219,27.2251
42.8748,10.4099,37.4408
29.287,44.8416,12.7891
1.69761,47.5621,32.2111
13.1807,47.1129,39.8471
32.5723,25.4256,0.205722
2.97031,46.8679,8.12989
10.9211,32.5356,24.1471
12.5194,14.8992,0.775361
23.7042,23.6296,21.0954
18.3794,28.3917,47.7599
4.49024,27.1076,0.928108
21.0335,19.6706,15.4674
31.6492,30.5816,17.6021
18.9066,6.82141,19.9424
25.2164,15.6428,40.139
33.4394,34.482,31.4875
40.2263,30.4914,36.7907
4.1453,35.7026,44.7606
41.5772,49.4935,30.1162
3.79206,11.656,42.7406
30.0817,5.87507,49.7845
14.8168,15.8107,6.43305
6.29509,18.6604,39.6947
48.022,5.81088,43.4606
30.2967,18.9273,15.0544
13.3449,38.095,17.3882
46.4538,38.5593,5.22845
10.929,21.5993,13.3556
21.7891,47.3997,13.1039
40.2557,47.3984,15.3851
25.9515,26.6023,15.3929
25.053,40.1924,18.1297
13.4828,18.7701,29.6821
1.12628,10.9668,45.9329
7.44824,26.1923,5.13962
11.5175,44.9134,35.9075
28.912,46.2435,43.2306
30.0485,3.90474,23.8883
3.31308,14.6156,12.1577
37.5089,44.3764,10.5413
14.2547,7.65329,37.3122
20.4877,46.1122,30.9149
39.6554,35.1699,0.934264
30.1217,37.169,22.7778
23.5528,18.1588,4.01632
14.0124,22.5548,0.055549
11.6107,27.7234,42.5136
36.0647,1.55062,8.53352
26.7944,26.2323,18.5042
13.9228,6.30737,14.4102
7.08916,42.6052,26.6978
19.6312,11.4963,49.9998
15.0094,4.76398,5.73702
3.01543,13.176,21.2587
38.8591,20.761,40.649
17.4457,40.5205,42.1212
43.3927,6.92303,4.02773
25.0269,42.5622,17.9229
9.39328,4.0243,17.4725
23.1888,14.75,8.64076
32.9241,41.8184,4.43833
48.8454,29.5009,17.6507
3.51614,1.84666,17.9949
20.1817,35.5364,29.9779
25.5473,26.5676,45.9245
16.5935,30.6878,40.2055
30.8088,31.2005,0.233773
7.33608,28.0914,27.4519
5.07986,31.9641,41.866
42.6754,37.8621,48.7114
18.2274,38.5082,28.1211
37.6137,11.4028,16.1928
29.5766,24.7624,35.0344
41.5096,22.2423,21.688
49.3992,42.0782,47.7603
13.5298,47.4109,10.3087
38.6146,39.4904,17.5569
26.6318,34.4409,11.2581
23.2871,20.8886,22.5982
35.1244,28.0107,39.4667
34.9701,3.19306,31.055
24.9381,48.8076,21.751
21.0423,29.9808,26.6482
31.3161,16.537,23.3415
25.5763,47.3161,18.3201
44.7612,14.8405,36.9173
2.23254,6.33514,14.0112
2.44671,35.5236,25.0491
15.494,36.8704,46.8104
41.5114,45.6227,12.42
46.2305,15.568,44.0744
0.505531,13.0385,25.9479
26.6266,40.3599,8.72459
0.651811,19.5583,39.3981
2.57559,6.91324,0.282666
2.95761,10.7592,17.256
1.1127,47.7687,24.4033
18.8803,0.403775,26.6393
2.90024,19.6242,25.3817
47.1488,36.3329,26.6166
21.5896,2.67504,47.4606
15.0661,49.8512,8.06765
19.8812,19.708,3.20508
10.2361,29.5689,23.2169
9.7571,15.2936,18.9211
1.34623,40.6623,30.4378
18.199,25.3024,30.5758
22.125,45.8552,30.9386
2.80345,1.92922,18.0447
15.4797,29.2948,22.2259
13.9724,36.0366,12.7351
23.6201,26.5564,2.46079
4.05839,23.2948,8.17831
45.5673,8.90197,3.6611
35.3732,23.1325,38.1102
20.6338,31.0871,38.6106
21.1755,42.8238,44.7326
35.892,22.1058,26.2395
47.4925,12.7494,6.23963
19.1853,24.4937,33.3481
14.0463,20.5102,8.67126
14.128,16.6419,21.8333
16.3069,43.7156,49.7229
27.7298,47.0679,6.96165
36.6665,38.2777,11.3142
17.856,38.6403,11.1065
10.5939,2.00425,36.1689
10.4027,26.887,2.70848
44.8109,15.5017,1.39606
33.484,5.7458,4.12612
11.3763,37.6464,40.7042
2.20016,42.3134,38.7121
3.64207,34.5223,39.044
27.6686,3.94547,34.312
44.3175,37.5279,15.4283
35.918,13.0645,10.8742
34.581,11.0105,31.6535
8.31106,15.1717,17.8577
21.6154,29.3337,49.2986
2.83495,6.59235,45.725
22.1816,49.0963,11.1297
2.51733,33.786,19.2504
35.3736,9.73479,48.7117
19.8119,14.2019,35.516
17.8564,20.1626,5.83035
16.0821,1.33744,12.8767
31.3141,7.62921,9.7117
46.3776,3.54368,47.2719
7.95163,30.207,8.91032
21.1205,0.180751,9.30465
38.7351,49.0473,37.133
25.3879,43.6739,15.3383
11.1473,16.9664,26.8246
42.8164,33.7,46.8217
10.4474,40.7907,13.9505
11.0245,33.8099,15.095
33.3779,6.09984,38.7501
12.5456,41.8103,34.8595
40.9818,38.4084,46.5635
27.6793,0.30369,21.5125
42.2766,47.6528,36.8565
24.0085,45.0314,12.231
10.3352,18.7984,8.6659
31.5665,44.3689,29.6613
37.7694,26.6809,15.623
43.8751,19.5534,34.2125
19.6073,5.61926,0.824792
6.78327,7.42288,11.1043
32.6534,9.77175,36.1159
15.9004,10.1194,31.1346
41.7742,38.3544,27.6193
26.8035,17.41,5.0618
0.0755076,42.3507,44.0939
18.1302,17.6843,24.6408
28.0971,37.3338,31.6622
25.763,23.5343,23.7672
20.676,26.5194,13.3109
27.7888,21.7605,14.7636
7.32874,45.2297,5.27848
32.6774,42.7512,3.85339
8.6863,37.5863,8.28931
4.87562,43.8403,12.0896
3.44674,0.840141,40.8619
47.6857,42.8747,16.2321
47.09,29.2201,7.15059
2.16892,31.281,2.68292
13.1115,1.72113,32.8383
27.6444,36.4456,7.69213
25.7249,46.0353,11.8868
37.8547,0.603415,31.4218
7.44232,21.4916,11.2663
35.6858,11.2337,8.52269
27.0187,30.9148,48.0618
25.039,46.0095,12.1511
27.5018,13.2762,26.0583
46.5576,46.2156,45.627
18.5352,26.7058,22.8593
38.6384,49.6404,40.0174
42.95,0.373951,22.4017
17.7495,3.55566,22.5973
27.896,3.12454,0.996482
25.3723,4.94291,43.9068
11.4522,36.8817,2.70976
12.4775,16.2487,16.8477
3.81326,14.3688,33.3805
25.3509,12.0965,28.5269
27.0465,35.8674,22.2785
25.0172,12.0005,31.3718
40.9289,9.20925,3.29812
13.229,49.3262,1.20175
26.1719,36.7908,22.0619
42.6999,42.7349,31.457
7.28247,11.7136,19.9193
5.92349,42.6078,24.4591
16.1151,12.4564,7.11728
17.5131,11.132,18.1067
29.8477,7.39554,13.8837
23.672,4.79913,11.3454
45.6383,19.2739,9.50567
32.4096,42.6668,35.2845
36.5884,8.35642,46.7376
37.5438,8.95499,20.5589
18.2136,7.4813,45.829
9.76095,44.049,26.0895
20.7405,20.2879,13.0596
9.48702,33.4332,17.161
9.43685,18.3725,18.8155
15.0011,21.0463,14.6702
10.2882,3.53991,20.8441
46.7094,10.6119,42.8426
19.3995,19.5491,1.8458
14.8814,45.8316,23.0527
45.3093,36.1058,13.2799
43.1169,13.3327,33.6312
45.6502,15.9057,38.0864
15.7594,29.3433,9.7435
44.5214,5.13926,13.1901
44.4235,7.22853,33.0203
31.8957,25.851,8.62076
8.54577,17.9971,41.0392
10.9186,48.8153,6.48611
41.8464,41.2171,3.41391
22.0173,41.5148,18.594
8.44446,30.6484,9.58808
34.6089,9.05859,7.54391
35.8058,37.669,2.9938
10.9329,4.52607,5.60108
43.0229,39.3377,40.4584
37.8176,0.909052,6.82764
31.0093,16.1561,18.7332
44.9109,48.2349,24.2874
23.3802,35.4174,21.9699
32.1853,22.6824,40.5005
40.4804,4.30075,13.6065
3.51064,0.798472,34.5741
44.4667,3.54067,9.31887
31.1031,36.5409,17.5342
27.4089,30.0696,40.6879
18.2795,11.1171,32.9967
0.0809425,44.8697,30.639
30.2729,36.7128,24.2436
2.62964,18.1061,2.60042
7.93333,6.66649,23.0472
39.3182,34.9647,37.3922
21.2225,29.7139,1.56757
0.72189,27.8585,34.0448
12.2414,13.0382,6.76429
26.9402,7.29483,24.2176
10.5529,16.6103,17.5687
23.7365,18.6184,7.94788
25.6204,21.7438,2.13378
21.3835,8.96708,9.50954
43.8361,48.3977,22.2081
43.9034,10.7759,2.01188
10.9343,29.2246,16.9284
24.6367,10.3857,19.2325
49.8069,48.4711,22.5354
1.19997,41.3624,21.9048
20.1395,6.81808,48.1686
34.1805,10.0142,5.38721
14.3602,23.3915,11.4655
46.6019,47.2406,15.8497
19.3444,25.8055,27.2857
27.5412,39.7226,46.7753
5.55068,25.3363,23.1817
30.544,16.004,14.876
18.4152,8.95471,43.7605
45.3234,25.0828,8.52265
29.0427,4.89159,40.7595
34.4168,33.9131,7.45638
42.5298,3.1634,10.431
22.5813,39.0967,49.4963
5.5891,26.2425,28.4471
38.1986,8.2701,5.41194
25.393,0.185075,7.7992
27.8815,22.6471,43.4996
18.0831,23.0742,5.52621
23.3929,12.3263,2.8003
48.0271,7.73216,5.56408
34.966,22.6917,3.52926
8.22225,4.98431,23.4414
10.326,34.7054,14.3273
20.7618,44.8098,31.9169
47.5891,42.3983,18.4024
18.3513,5.4934,39.2253
9.622,2.51578,44.4793
13.9296,19.6625,14.8547
41.3437,32.9049,41.033
22.7934,45.3427,29.9635
27.7319,17.8838,19.166
7.24728,20.8697,30.6258
22.1182,25.6899,2.5277
47.9012,18.2821,0.123973
6.69075,11.6244,30.8144
47.9862,19.7453,42.6927
6.11661,0.85743,0.165807
4.38724,7.13226,4.24363
31.7031,1.03104,26.1618
31.7065,15.6734,23.82
46.6637,46.7336,34.7863
19.0702,44.6471,3.65306
35.062,9.03929,26.9008
26.8788,0.170748,38.7784
1.97395,27.962,9.05653
23.6018,18.0759,7.12628
33.8764,30.5815,1.52745
16.663,33.187,22.0084
21.1159,20.2776,48.4253
43.5205,8.7313,15.8206
40.7599,49.5209,45.8463
38.0398,8.47432,20.8045
20.0086,46.3374,18.1253
12.184,2.13972,20.2886
37.6391,43.3188,1.27696
34.2835,43.7849,37.623
30.994,41.2344,32.6848
3.13153,33.1921,12.3784
21.0272,47.5302,10.9032
19.8432,16.8441,5.16189
37.743,24.9377,21.8359
15.111,32.6731,14.1314
15.1648,19.059,7.00987
36.7676,10.2925,39.5628
38.8964,8.12425,15.73
19.35,16.394,8.84742
0.941022,2.89729,4.09333
30.0453,21.3431,25.9996
34.3581,5.18165,0.161418
9.82648,30.154,7.9649
27.3852,15.8801,41.6479
37.8957,48.3667,5.06263
49.9584,36.2599,48.8896
21.1944,49.4175,22.2448
41.783,30.7823,7.29956
21.6455,6.82076,45.7022
41.9983,39.4415,49.4097
44.764,32.0032,14.2306
10.9309,22.5009,48.8484
30.9261,32.8684,37.7001
49.5526,31.8386,31.3256
42.0204,16.4582,2.6821
39.9712,7.19532,45.1479
38.9688,42.4245,29.4596
1.11361,21.77,13.953
3.34722,18.5543,26.6066
34.0158,39.6621,27.9971
46.0047,1.49936,14.8963
33.8985,20.2952,28.7102
26.8972,32.4567,12.5864
5.40501,3.70948,28.5346
45.5856,31.9264,17.9291
23.143,24.7118,8.52435
0.150559,22.2821,44.236
20.065,10.0821,2.87991
33.7144,22.0619,29.0186
40.7332,12.9715,6.61939
18.2069,10.0777,18.4153
13.2189,3.40937,47.8203
1.73931,19.1776,39.8103
45.6617,27.5022,41.9318
27.4516,2.17344,4.49485
46.4771,19.5939,7.5359
26.5372,34.3237,38.1075
36.1937,7.8475,13.0479
36.013,21.3543,26.129
47.8332,36.7288,13.3637
43.3349,43.9045,39.3312
47.2763,28.4075,4.4243
2.45888,33.3318,44.5527
41.6465,26.4056,15.7242
19.5484,9.98112,38.7274
28.4888,0.373248,43.2562
18.6427,8.94507,47.2848
30.3283,12.1752,25.6436
40.594,34.3448,36.9232
7.5452,21.0256,30.0081
15.6743,33.7061,27.9641
9.04493,2.49175,14.9425
3.8598,3.88,41.0911
25.853,32.2993,16.4028
17.6049,8.75804,24.9115
22.9783,28.5713,0.104488
10.5755,25.236,22.9643
36.6459,16.1794,36.5729
14.254,30.932,33.7959
13.794,5.68011,46.9674
23.5965,5.58607,20.2118
27.4371,37.805,1.59982
30.3858,29.9355,4.89272
25.9946,31.4758,16.1304
23.128,36.4947,21.7257
20.0224,34.3288,44.0772
14.2285,0.430672,45.4631
25.4154,15.6949,25.4275
7.15064,32.8705,19.0542
49.4036,49.4377,32.5297
32.6284,38.6996,14.4912
15.2082,20.9186,32.0643
9.55364,34.0849,47.9864
9.21579,5.06843,30.062
46.8925,18.6615,39.094
41.2689,40.1433,34.8992
40.0549,8.33314,5.63026
15.2861,13.6837,45.1886
48.0204,16.1083,44.228
43.0838,37.6801,30.3854
25.6195,44.4445,42.1161
39.1144,20.2724,26.8562
28.996,44.6907,13.0137
30.8431,18.888,3.14879
21.7343,37.2482,12.9747
45.9322,40.1563,23.4608
36.3394,23.1458,13.2215
13.1597,1.31295,2.48141
0.678566,4.33945,18.4503
37.1399,26.562,45.3847
34.9092,26.8018,37.133
20.456,5.43167,43.6415
14.6234,40.4925,33.1475
24.6255,13.042,14.0517
41.9052,49.5422,20.4255
40.794,14.89,5.56042
3.66725,4.47263,18.6138
43.4124,20.0484,19.8501
37.4187,13.4697,49.726
33.7667,7.72533,45.1502
20.0307,22.6421,2.42579
41.9385,14.4959,41.315
39.2153,45.3337,12.2335
32.0287,3.32138,2.20307
44.1218,37.5383,36.0267
43.273,30.414,27.0641
20.0379,47.8034,4.78585
28.3317,4.28226,48.881
2.89734,28.2563,27.2792
7.54255,49.5421,12.588
44.4011,8.21561,44.233
4.62945,21.3984,17.784
10.0353,39.205,18.8302
33.8305,23.9798,7.26875
37.8873,35.5508,44.5811
38.5605,47.86,22.0898
13.837,9.47106,10.8363
23.8867,8.96712,29.9218
21.4576,33.1865,24.4744
4.80846,29.3821,1.9432
31.4409,2.40586,25.4886
6.1296,20.3893,28.4158
33.0856,49.1884,12.1435
4.9803,49.9441,25.6833
36.7211,46.0212,29.1188
17.0205,4.58548,4.21839
5.81704,48.8882,3.84346
10.6055,18.798,16.9038
37.608,7.83221,27.0148
8.81058,34.8076,31.0063
2.83409,3.05293,4.22099
25.9144,41.6793,29.2014
48.2507,23.5517,49.4517
45.4712,31.4463,17.9185
16.4168,44.1548,27.5179
35.1912,0.881194,16.5295
27.0547,32.3013,34.8653
32.7271,0.131331,15.5369
35.9549,19.6519,42.0446
12.9877,28.7106,43.3786
44.821,34.6348,22.8405
15.7273,28.2205,41.1532
31.1484,21.1448,15.1751
40.5815,13.4651,24.1076
48.3602,23.1819,30.6755
34.2603,41.0207,16.1785
3.28852,19.9622,30.3893
0.514435,47.9908,17.5061
38.6724,15.5641,24.9946
38.0272,43.0274,13.4618
32.5028,41.0194,20.2003
12.2568,44.4602,40.5512
21.2866,41.3141,40.3644
29.8399,13.1549,26.0891
28.452,1.65435,49.1577
29.2146,45.4306,34.5582
28.8624,11.357,42.805
16.614,4.12299,15.1077
45.6743,25.4987,2.60897
8.3203,4.64255,11.5738
30.9214,11.6446,44.3584
20.8541,37.5111,9.75202
3.26097,33.0188,11.4137
3.8101,47.2544,30.3448
13.7558,9.95567,11.0052
39.6242,29.3852,13.6091
49.0761,28.2241,3.13379
48.5628,1.40914,7.14141
25.2971,32.7287,42.3975
38.992,49.6887,43.984
11.2651,19.3417,29.8423
4.6046,42.1203,44.6081
1.64834,3.46668,13.6748
25.0369,46.1868,42.5348
11.8334,2.79655,46.5368
49.4297,31.8509,3.02525
24.1012,34.9771,21.2973
6.15211,21.4195,31.5091
8.33867,0.779392,40.8045
40.2502,27.6874,32.8908
22.5484,47.5978,1.79409
8.59396,25.8261,36.7244
21.7906,26.3785,7.16641
0.135266,7.50742,44.2435
12.2297,17.4056,48.4596
9.51271,10.8185,29.1702
41.3789,18.8775,2.45434
17.3881,47.4159,17.9161
15.0412,20.5149,4.04506
37.7138,44.8607,1.57844
11.6251,3.51121,26.3839
33.7655,14.7552,42.9095
30.0622,34.9349,26.7063
1.16433,13.7066,25.1874
39.1743,20.3422,3.56513
45.268,31.5593,17.8251
16.5503,21.618,25.8475
12.5925,49.3351,35.4983
27.0448,42.572,1.17787
47.8621,40.7902,8.95559
34.7164,11.0411,32.5575
24.5524,3.77983,47.5437
44.2477,10.3016,37.6942
41.5067,45.893,4.62555
46.685,16.3824,13.9555
12.5918,35.5589,4.89465
39.3094,20.3822,41.5576
3.75773,19.8234,8.70055
46.9823,5.97521,49.975
47.0922,22.5156,12.4137
6.95942,5.89237,3.34776
32.4568,39.0294,31.3306
31.3115,35.5377,1.08994
25.8559,5.57327,20.3263
19.0478,32.0285,41.5486
23.4109,29.8203,22.043
25.6101,9.84055,29.0217
27.3614,38.3993,37.7607
0.117657,26.0237,10.3687
35.6163,25.6944,42.2277
49.8999,42.2908,28.3635
14.7048,25.2386,29.7009
39.6929,33.0869,12.6251
19.2794,46.9379,33.6202
19.2766,15.5926,25.673
8.22002,20.7843,42.1534
19.0506,7.85893,45.3811
43.8378,2.67655,16.7274
47.9014,10.5198,49.5805
24.1519,15.3337,42.9181
1.17224,25.3647,21.1269
15.6786,42.3891,40.4207
8.16011,30.3175,7.90435
26.292,29.6392,29.8804
16.531,0.151328,29.4069
43.0879,10.7593,20.6615
9.30341,16.7921,38.219
18.4783,40.8195,3.89808
44.8396,31.1927,28.9706
47.7003,7.3779,30.3625
13.8136,15.2125,20.9554
31.1728,33.185,5.48208
2.832,28.3296,36.0337
33.0716,0.592462,19.5992
7.3704,36.9332,40.1914
4.51614,0.839914,35.2827
1.06035,6.96108,27.4296
36.1499,45.954,37.9021
44.6203,23.4246,24.1543
1.67679,13.791,40.0019
11.8434,4.19546,47.6294
11.6109,21.0567,27.0112
8.75994,42.9724,6.10602
28.392,37.9639,8.79294
28.2688,41.0019,42.5681
27.684,3.31306,47.599
47.204,36.5868,33.0241
27.1162,1.97728,11.6279
21.6559,3.34781,18.6481
21.2771,13.4603,30.7277
21.8083,2.69043,16.8065
49.0197,7.50093,26.9882
44.8729,8.66978,40.921
18.8293,4.57855,31.0179
37.6533,12.3669,30.0407
23.6192,45.6573,37.4549
1.02527,9.15056,16.5443
16.2788,34.424,15.2508
14.9172,42.8505,6.97018
20.2016,48.0689,21.1441
31.4468,46.6155,37.8323
27.1475,27.778,23.6238
47.3233,20.8431,18.4495
40.135,45.3616,34.4489
9.44964,43.4025,22.6988
25.7189,33.7213,21.4046
36.3734,10.9911,29.4091
13.1506,24.2249,21.1694
34.5616,32.4136,30.4961
9.53839,39.779,30.3979
20.9947,24.2678,24.2948
33.4419,13.4851,33.0696
14.1799,48.7246,5.66588
48.8771,19.5576,2.1881
48.8212,45.7452,13.0313
33.8294,37.5213,42.6599
29.7512,19.2579,6.46492
48.6088,24.6696,21.2068
23.7794,15.1743,36.7118
22.6429,9.47115,40.7371
14.0519,31.3433,25.7086
18.4716,40.2257,25.3012
3.51858,33.3891,37.282
16.2685,10.2789,39.3269
0.0936806,49.6663,15.3849
39.9795,10.659,38.1226
12.3342,1.97182,27.3866
27.8202,16.3864,24.8385
49.6268,6.1854,41.1394
24.6514,4.06373,13.6055
46.3718,27.6339,48.5793
20.6326,24.8821,38.4747
19.3467,1.35446,43.8006
33.2182,38.7871,9.91852
27.2916,28.5325,29.6454
36.4741,20.2892,43.3558
3.34108,27.8652,37.4164
35.1895,16.2316,45.1184
13.3694,5.53853,43.2797
47.1321,33.7336,47.0153
18.3898,46.9206,8.65354
37.3736,21.0546,49.3993
18.1575,3.33306,8.71268
20.254,2.49922,37.0115
29.7771,18.6075,2.54478
30.7916,49.5786,35.3328
23.8793,48.9508,15.6283
2.03399,4.23445,1.02294
4.8282,19.3642,5.60678
46.3903,8.97766,27.1209
23.4324,22.2233,47.6729
28.1348,41.04,1.57566
42.5972,10.308,47.0462
28.3817,25.9655,44.1752
3.73083,22.4836,19.0229
4.48059,14.8903,13.951
23.3035,39.8996,36.3048
22.3777,45.092,27.4767
33.5791,41.2515,41.362
49.234,24.9836,44.154
16.7197,44.467,25.863
47.0255,16.9478,29.6903
8.68715,24.3048,11.5716
39.8499,28.81,44.2591
22.8581,33.7197,19.3809
28.1153,9.55907,40.8394
8.97694,0.997191,38.6636
40.3682,39.8182,3.52504
4.35805,45.8621,17.7918
7.6557,26.5024,40.5724
43.1629,23.049,23.8055
26.9333,3.69858,39.0721
9.2834,26.2871,36.7002
13.8469,39.0237,24.6102
15.7984,7.74772,1.67404
10.0039,42.5853,3.42081
38.8086,7.49184,36.9088
35.0867,1.95986,12.3318
6.77299,5.92789,19.0601
12.2543,21.7683,10.5704
25.2233,14.8423,33.3186
23.3108,30.5836,26.9554
21.5665,48.2999,11.8052
11.7904,27.4987,48.8477
10.7613,42.0888,48.796
14.8626,9.44641,38.4205
23.5295,16.4695,31.2202
49.0645,42.5836,41.2104
8.19973,22.9222,25.8061
2.85366,43.6137,10.1052
45.7312,34.8165,35.584
47.7562,18.9933,32.651
37.7142,0.757414,48.1579
27.1855,42.8839,39.4741
46.1777,40.8022,16.2392
36.4222,21.7727,28.6784
29.8209,43.1537,9.22061
25.4007,9.22507,11.2893
30.1883,11.8224,4.95453
13.5074,38.8012,12.0028
46.6292,35.3903,38.2681
30.2011,33.2673,4.85974
34.1485,23.1595,38.1674
30.8532,35.4149,12.4964
31.8533,12.0029,2.156
22.2421,28.3488,31.541
34.2224,33.4924,46.6894
3.98449,25.4415,23.06
24.8525,21.5777,6.40608
33.3703,11.914,35.5958
1.62873,42.6378,44.5291
18.4785,4.89085,11.1776
19.6249,40.1908,41.4641
26.2584,35.2698,24.9009
10.8697,23.3617,18.912
16.3064,17.7425,44.2225
44.1518,23.5258,1.6728
10.2176,24.2444,31.0839
22.8984,42.2032,31.9732
2.33918,0.220383,8.00897
48.818,47.4655,8.60495
14.1055,39.3056,43.584
13.2273,33.4108,45.7928
43.0313,46.9561,32.6189
25.1381,8.16858,33.0529
1.2407,18.72,33.604
5.48391,3.36774,46.8022
20.8654,10.9848,31.4372
26.3353,38.0231,46.203
37.8202,6.134,2.05819
1.33898,19.2355,40.3114
7.98778,28.1583,46.5821
19.3996,18.0234,33.5898
31.7462,6.75707,23.0724
28.6633,39.447,49.807
1.00512,11.0217,35.919
15.6958,32.5091,32.829
7.14985,30.8687,7.80159
38.7601,48.9462,4.23898
37.3287,8.77442,5.5457
23.0324,47.6094,6.43399
43.9946,23.0384,20.0519
39.6116,29.3106,20.0776
3.79488,0.18418,21.1776
6.41899,6.41958,27.3592
26.7221,35.8618,44.1065
19.4109,17.1603,45.6304
37.3623,1.83606,17.4869
40.0974,32.369,31.4315
21.6789,42.5914,4.60487
34.6394,48.6882,48.2918
10.2076,1.55092,20.6687
24.0896,35.56,35.2811
1.45171,1.46798,27.6655
30.4533,14.7967,16.465
24.0078,49.7648,44.8544
36.4301,11.7563,46.8584
17.9072,1.53346,14.1369
44.0391,21.6114,46.5222
40.2969,46.9168,10.4348
37.239,16.8499,18.8733
38.4757,18.091,21.4352
35.1631,47.2393,27.1236
27.4085,26.1617,18.7486
20.0064,12.7964,24.4695
38.6806,5.18853,26.2967
9.88813,37.5468,47.881
18.3974,0.141295,14.8222
30.1182,10.4661,19.6451
9.89058,2.44225,4.72788
25.0677,29.1816,35.279
20.8101,8.40245,28.9764
34.649,27.2479,22.4435
36.0751,12.9691,49.3588
41.0449,22.7252,33.6376
22.7294,11.221,6.3708
49.0013,5.00243,40.8814
9.49785,37.9183,33.8438
24.9864,17.1454,41.7948
29.3048,18.0022,20.4471
37.8002,5.07493,44.1618
22.9053,45.4021,36.5369
42.0668,27.0459,47.3943
29.3228,48.9453,38.3154
38.5938,46.0216,23.5841
28.4439,5.92541,8.17205
0.822768,13.2021,29.6555
5.25415,22.3181,48.9046
4.42442,36.6745,46.5093
11.3698,13.9519,41.1342
45.5848,41.1147,21.9472
21.4232,9.31167,32.2883
18.6662,19.2354,25.6434
12.7246,33.3383,5.06239
19.136,43.5641,41.5837
23.3329,23.0821,48.3526
40.8497,45.1678,41.9795
20.6176,25.2817,18.6749
28.8914,25.4047,30.3856
7.80613,37.6999,49.077
21.8648,42.0602,13.9802
36.2335,6.66943,1.26889
26.3668,25.1499,25.5164
13.0632,32.8235,37.5114
4.72532,19.5358,10.7455
40.7105,35.1552,25.4573
20.8779,27.8541,20.3095
43.8227,17.7014,39.8222
10.7021,5.55423,37.0016
45.0246,24.3413,33.8943
21.4725,47.5796,28.3355
49.7701,14.1935,40.4347
28.4088,8.06812,6.72827
1.15527,42.0866,36.7184
44.7204,12.2553,3.54774
23.0019,0.911327,18.8637
42.2566,23.3673,36.4728
43.5707,11.3649,14.4069
4.26116,5.28748,37.4929
17.8085,21.9692,17.6622
15.4535,30.1687,40.3159
47.6377,17.1134,5.64287
9.25734,31.9808,14.2576
12.1022,22.0602,19.1834
2.47216,27.6676,9.94387
26.9565,17.7582,44.6439
39.8477,44.7554,33.2518
34.5894,1.8661,14.5523
38.3172,29.5814,16.0445
10.9088,29.9425,29.7654
6.54118,4.82884,1.10376
48.7733,14.8822,2.08346
42.0854,29.943,38.0301
4.76586,39.2325,27.8225
0.950582,20.2597,9.06075
45.0757,34.4215,1.25723
18.7715,35.5647,17.8935
22.8867,24.8652,11.6557
14.8503,26.0943,36.1649
21.9561,20.316,30.721
46.3603,41.3784,27.9301
21.2024,24.5914,32.0089
33.9475,18.1795,5.77436
47.364,23.4581,16.5164
46.5477,19.0523,19.7581
10.6506,16.3167,9.09588
21.2823,29.8421,31.398
44.8042,38.3537,2.81365
24.3732,19.7425,34.7648
36.4971,43.0408,4.6405
48.1347,35.4993,34.3867
3.12398,32.9887,35.0872
40.4342,25.1279,9.67891
32.6451,41.9195,16.7824
9.7323,12.8435,38.3887
27.8455,38.7271,44.4522
31.5641,6.58826,42.6031
48.2665,34.5246,0.885846
38.0702,27.582,17.1528
42.8328,48.5566,39.6971
0.611966,25.8729,26.4156
17.788,25.0391,1.71404
46.9315,0.0754867,1.63001
11.1829,11.8663,49.9426
47.5175,8.3997,15.5867
32.3843,39.9958,46.0412
32.9142,11.382,32.3729
41.4651,46.1905,13.8012
32.1444,15.3415,41.8924
46.1077,37.8397,49.9448
39.179,6.65916,33.9272
3.81717,10.7715,17.108
13.8251,10.6322,5.7503
18.8539,0.184881,45.3854
32.8309,5.16002,3.79468
25.1442,36.5354,34.7692
35.7403,33.886,45.3292
30.5286,17.5026,7.71129
35.3041,31.2618,43.9484
19.2074,41.7501,33.6681
43.2165,44.3152,39.7286
37.4659,8.8421,34.0197
47.5341,17.0138,9.51593
5.25889,35.9224,49.9139
7.65461,1.06939,38.1129
10.317,9.26899,20.6345
32.8792,16.078,44.3428
49.1461,47.3809,2.26517
39.4324,25.4439,45.0405
34.6536,3.51865,11.4956
4.34738,7.70854,7.29387
18.8253,20.0019,44.4418
6.68564,38.3222,44.132
34.4558,41.8485,22.9679
5.4397,15.1229,20.5931
5.04917,0.676034,31.7569
30.1612,44.4364,13.3179
11.1681,36.4096,1.71017
7.66999,0.315635,37.6748
6.9735,10.6927,20.7366
1.68053,39.6348,30.8675
44.7021,9.96787,47.6888
43.234,35.6298,42.5752
17.0651,6.18257,28.9082
17.3298,4.17071,7.60161
21.5082,19.5959,40.5619
29.8724,48.1132,41.5551
49.864,22.9284,1.76699
20.7269,49.3738,42.3706
7.80959,48.4346,7.0091
22.9317,11.0443,27.3594
7.72635,4.2775,31.6742
4.29832,48.7842,39.1138
28.6809,7.91293,12.874
38.8283,38.6524,14.1905
5.87666,27.6871,47.4582
45.0332,37.4473,27.6155
31.412,6.05315,26.0402
14.7032,28.0155,27.5295
45.8934,22.6173,0.854153
16.2354,34.3869,42.9849
49.9106,9.03615,2.89425
4.67744,17.9586,0.286796
15.0216,24.6528,34.974
16.3528,25.766,0.435735
37.1338,7.3415,21.4275
28.4332,6.62245,17.946
45.0557,36.5421,25.109
20.6673,48.0436,2.42841
27.3717,33.5021,38.0974
12.6028,41.8401,35.8859
19.6341,27.1624,31.2711
28.0687,18.4576,32.6967
21.007,20.9922,0.078465
23.7374,23.6165,48.1384
44.1908,10.8202,33.6131
0.548985,41.8916,38.1776
23.1031,49.8873,9.26449
2.84447,11.5465,44.815
26.3437,36.8596,1.72801
16.2657,23.0148,29.1191
31.9972,11.5872,0.821531
28.122,33.1059,0.939957
47.0177,22.6059,47.0793
34.2896,48.9735,23.4502
11.6026,1.96312,9.07018
4.56339,24.2248,48.3507
4.16216,30.7649,36.0787
2.8372,14.2305,32.3124
42.8751,10.907,31.9387
25.4107,6.39567,38.9042
46.7486,36.1358,31.6961
19.2159,3.68196,22.4966
11.7918,46.2328,44.1049
32.7566,36.1005,14.8321
25.2901,47.8079,43.3917
47.748,26.972,34.5323
12.5197,6.32071,9.31907
15.4757,34.0448,33.9093
12.791,4.80182,10.986
22.8052,22.2876,40.6947
14.4587,6.0203,47.7768
17.287,47.4191,27.2112
30.3888,10.2336,29.2699
36.9552,29.4878,46.8622
8.26699,44.2259,25.0384
39.99,35.2329,36.2908
48.9423,40.7671,28.6329
49.4422,30.1095,27.1753
37.4269,35.8201,27.2478
47.9933,37.3436,15.6488
29.0162,30.742,2.59788
21.4103,27.4437,20.7269
32.688,15.5532,28.053
20.1672,43.0293,25.4689
30.7651,5.78569,8.91542
11.0562,0.0317173,14.5795
41.4279,39.926,36.2616
42.9515,8.8811,26.2818
14.9448,0.352451,7.01804
43.1398,3.85145,40.9107
23.1112,8.29761,21.0802
29.637,36.8708,4.52262
2.63606,31.4563,47.2151
1.95581,5.51357,19.2465
41.2207,27.5411,14.6266
14.5886,26.9213,38.4432
21.922,36.397,13.6771
4.08819,2.37553,34.656
8.32136,3.50025,19.8964
16.7483,5.30436,41.0607
30.6158,25.6019,24.5041
0.463078,44.251,24.7187
26.1712,2.0723,45.4778
8.32944,37.8371,34.4075
17.9686,7.41784,17.0096
23.3473,21.3605,6.93326
41.2983,49.1709,48.0647
45.9247,36.0801,23.2911
26.0483,47.4414,13.1375
37.349,13.8095,34.7416
36.0085,7.69661,40.7596
45.7155,7.71232,31.2232
16.6787,17.8902,47.9395
44.2684,29.7496,23.7327
47.3621,19.5621,26.1397
18.6405,19.8288,46.6283
41.2945,21.0748,40.7438
42.0373,36.2006,19.0752
9.10294,45.5016,44.822
17.123,6.50879,39.6852
45.6,47.4602,6.98858
30.922,6.22593,1.23113
9.23773,28.2317,21.1335
18.2572,43.8558,1.95372
10.9898,19.7486,12.1285
6.37182,18.0446,21.7321
48.168,49.2572,23.9132
2.38402,24.5758,46.8812
21.0768,46.4907,18.9987
17.8512,36.3948,34.5554
27.7866,47.3314,35.3539
12.0633,43.4202,0.818976
10.5486,48.4623,37.2772
2.32893,8.48916,16.3826
49.6429,1.31899,28.8493
17.2556,16.2843,45.4812
38.0179,33.7737,42.0653
9.55421,46.5392,17.7661
25.7386,33.109,17.3842
34.9387,47.8798,1.73362
35.4848,2.37792,44.3711
8.25966,10.1463,7.6431
31.555,16.613,5.6214
11.758,39.8365,44.1813
36.7239,24.5942,34.7761
8.23329,6.88332,16.2562
40.6917,27.7218,28.835
11.7334,19.9665,8.35328
1.02095,42.872,10.814
40.2526,16.1341,39.0337
30.1824,7.88685,23.7738
22.5689,14.0884,39.0877
41.6513,30.4743,47.4532
40.0061,30.4212,33.2662
41.1167,5.77476,12.8373
10.1881,43.648,6.74222
22.672,47.1241,34.4706
31.2413,29.486,21.4599
23.2415,42.8848,39.4703
28.7299,16.9267,20.0033
40.2718,37.0879,3.7294
18.8631,17.8509,14.1335
26.7611,33.1326,47.5787
38.2041,46.5296,8.56816
41.6565,16.0115,6.3423
1.89926,43.2672,26.3135
39.2325,22.3858,30.3458
43.0733,2.98829,31.591
11.9584,2.70166,8.23351
8.63749,22.9355,17.2685
18.9033,3.92775,5.82107
17.553,47.0359,42.548
33.5478,36.3822,17.3873
43.3006,29.7669,30.2027
0.54353,37.576,49.8514
48.168,4.23129,43.6644
21.1179,4.84203,47.6692
48.4623,33.1006,3.06416
7.23841,30.3775,6.24419
36.0809,47.5858,7.15378
15.9937,17.8226,39.2089
2.57328,14.0505,18.0194
26.8718,1.47194,39.4334
0.760876,43.7655,43.5468
26.3529,5.66362,36.1612
44.1022,4.91339,40.3367
26.2258,19.1549,22.1436
17.4712,5.31371,6.81513
28.4658,17.4065,29.2575
32.1096,25.3163,5.78472
29.8895,37.1878,42.8064
12.2579,15.8307,49.0413
5.67607,20.4284,11.2966
27.1963,40.7941,32.0102
21.357,14.8588,0.803285
16.2983,2.54466,6.09984
43.3616,44.0713,6.15679
21.1286,39.1253,26.4699
13.5087,17.4378,34.5207
34.9808,47.6143,36.1941
2.82352,45.5949,1.54827
46.8075,4.36909,39.0792
36.785,32.377,11.4925
30.9691,29.8294,48.721
11.9227,48.9459,30.8074
38.5509,18.9339,16.1392
42.3348,18.2769,14.7807
25.4914,3.08313,46.878
39.7297,14.8703,24.1614
4.30923,37.3763,30.388
46.7751,17.4291,31.9457
31.9223,44.3633,39.8185
3.01296,39.7688,31.7421
36.835,8.30944,48.3686
7.65162,48.5478,26.8758
48.988,3.82234,45.3396
8.83041,43.8279,16.5624
34.7307,43.8294,40.7842
42.2643,12.5636,32.5414
15.9475,44.8294,7.22244
11.3874,13.2876,2.67712
48.3748,1.2281,1.34847
47.7964,39.4743,4.62933
32.0241,37.9576,23.1113
21.7066,11.6678,18.6331
45.0404,48.5116,31.6003
29.7592,22.6013,25.5829
27.7558,12.6609,28.303
24.2057,14.1928,3.58854
29.969,36.9408,18.7926
15.8772,30.8425,16.9905
15.6016,43.0815,31.3637
42.3927,26.0732,24.7466
20.8542,5.08302,25.628
49.342,15.2305,49.3235
37.1315,3.53791,19.8182
17.4172,8.27554,8.20139
37.9393,40.7069,37.8824
45.9888,35.0991,48.9733
31.971,28.5613,20.0147
2.69086,33.7304,12.8731
10.859,49.7469,35.9129
23.6652,11.9699,48.2736
11.5262,2.66521,2.28046
29.6847,0.0940574,28.5608
38.8991,14.444,18.8393
16.4247,44.305,32.2721
21.6578,34.9376,26.0616
29.6578,26.1497,20.5726
11.4639,46.2124,41.0709
18.5924,43.3381,34.0837
45.0035,43.0735,27.3631
14.351,26.9556,43.9497
0.08072,17.2123,4.72723
33.2046,43.1432,0.53242
40.5199,27.5189,14.816
32.1126,26.2762,22.8395
4.99298,8.36256,21.6869
9.84437,26.7059,41.2132
40.0884,9.98698,7.02266
13.7147,39.13,42.8648
41.2385,24.0797,23.8302
14.1119,4.78226,1.11402
9.3063,21.0155,24.4987
3.77228,23.0165,3.08303
45.8485,44.2718,35.3099
3.16597,9.40009,48.7576
38.4552,0.244328,30.3898
29.1357,32.2801,36.9352
28.8474,12.3971,23.0152
44.1037,33.9186,9.63318
15.0753,17.2289,8.14006
8.758,11.4147,35.4612
15.1795,23.2884,17.8819
30.1154,19.0751,5.33257
43.2914,36.5509,38.1676
47.0865,27.021,15.0389
0.633047,12.8865,42.5287
6.13529,45.5122,42.1339
36.1681,38.0125,49.9729
11.2298,46.753,49.9415
45.2098,29.5321,21.0683
44.7924,18.8724,16.2638
7.79406,18.3585,31.0523
38.3032,37.8227,42.4793
33.7865,42.1352,18.134
39.139,40.4924,42.9134
43.8961,11.7886,0.00950376
46.6813,10.6353,16.6821
18.078,26.7833,34.6835
1.01956,47.0134,22.3731
41.588,36.322,32.9421
1.22883,13.8149,46.432
1.05526,20.3826,24.6849
35.4565,22.1037,38.1361
29.156,46.5136,44.8583
32.7697,25.2647,10.9764
39.4176,28.0451,17.5598
30.4243,8.83838,40.3957
12.4692,19.4208,19.9617
24.8886,39.1643,36.7803
10.5953,18.2777,1.59511
16.6323,17.2197,49.4979
49.4698,15.2918,16.7685
42.202,6.70716,48.4073
27.2716,32.282,2.12959
14.4188,15.9889,2.71648
10.0887,2.02056,23.0113
15.114,45.4227,44.5027
47.0139,15.5554,22.6574
36.0137,24.0284,18.7685
35.8728,25.7082,21.5381
8.22481,19.8919,47.3141
14.8849,41.9206,17.5512
48.7381,1.00153,25.2619
18.524,16.3583,2.53293
22.1541,14.9427,36.1323
48.244,19.3958,16.0152
5.93796,0.76606,13.5884
27.6209,17.8832,5.43822
6.43212,30.3311,17.9126
5.69862,9.15912,12.4754
45.9538,2.83294,43.5427
44.1043,46.6402,22.6488
3.45722,26.1458,4.33197
21.5895,28.1741,37.9368
30.264,21.9815,19.823
10.9461,0.0546575,23.8922
19.5039,46.7106,4.98408
21.3217,24.6206,40.9917
33.0068,36.9127,30.8939
37.6695,0.448654,38.7377
28.1699,17.7239,37.627
38.8618,21.1347,1.61608
20.9736,20.4495,30.9395
45.2973,10.9421,6.66318
38.7624,18.5558,26.4147
42.7979,47.1378,36.6459
13.2089,17.3036,35.177
24.5837,18.7377,40.7129
30.021,24.8704,6.37443
0.398733,37.2519,38.5107
48.5978,39.4179,14.0408
49.97,33.9735,23.8046
42.991,5.99033,21.9821
42.7516,45.9337,1.77971
6.3851,40.5162,26.0939
6.38238,21.5365,29.8002
39.9559,44.0247,41.2839
11.7498,6.36025,46.1871
41.4218,44.9579,13.2794
33.707,43.1821,31.7934
30.5937,26.5897,44.9343
22.9195,40.2781,41.1718
22.9948,38.8163,36.444
33.7968,25.4185,29.4158
35.7988,49.2536,34.8603
5.5501,29.2442,25.6984
26.5939,17.1497,30.362
24.0554,48.3535,29.9081
4.88203,16.3152,7.90299
30.2658,2.00837,21.9957
21.0129,41.4571,6.29493
18.1602,30.9405,28.2732
48.3581,31.5644,33.9826
38.8111,21.0219,15.1864
30.9788,8.82212,5.58776
2.47833,39.5158,6.78023
27.4739,29.7742,44.0591
38.378,36.5797,45.39
29.5917,9.36727,29.488
25.301,42.528,11.9006
2.95787,17.9673,38.1593
36.2944,47.9386,13.3566
39.2741,33.2613,38.6712
14.9235,44.8377,29.2074
14.6673,17.2562,5.20971
13.6852,28.273,37.0647
